ply
format ascii 1.0
element vertex 2116
property float x
property float y
property float z
end_header
566.923 259.231 10.6965
566.154 259.231 10.6965
565.385 259.231 10.6965
564.615 259.231 10.6965
536.923 270.769 14.4279
536.154 270.769 14.4279
504.615 276.923 16.4179
503.846 276.923 16.4179
503.077 276.923 16.4179
474.615 292.308 21.393
473.846 293.077 21.6418
473.077 293.077 21.6418
444.615 308.462 26.6169
443.846 308.462 26.6169
443.077 308.462 26.6169
408.462 324.615 31.8408
407.692 325.385 32.0896
406.923 325.385 32.0896
839.231 235.385 2.73632
791.538 234.615 2.48756
790.769 234.615 2.48756
790 234.615 2.48756
789.231 234.615 2.48756
788.462 234.615 2.48756
787.692 234.615 2.48756
786.923 234.615 2.48756
786.154 234.615 2.48756
785.385 234.615 2.48756
784.615 234.615 2.48756
783.846 234.615 2.48756
783.077 234.615 2.48756
782.308 234.615 2.48756
781.538 234.615 2.48756
780.769 234.615 2.48756
780 234.615 2.48756
779.231 234.615 2.48756
778.462 234.615 2.48756
777.692 234.615 2.48756
776.923 234.615 2.48756
776.154 234.615 2.48756
775.385 234.615 2.48756
774.615 234.615 2.48756
773.846 234.615 2.48756
773.077 234.615 2.48756
772.308 234.615 2.48756
771.538 234.615 2.48756
770.769 234.615 2.48756
770 234.615 2.48756
769.231 234.615 2.48756
768.462 234.615 2.48756
767.692 234.615 2.48756
766.923 234.615 2.48756
766.154 234.615 2.48756
765.385 234.615 2.48756
764.615 234.615 2.48756
624.615 235.385 2.73632
598.462 247.692 6.71642
597.692 247.692 6.71642
596.923 247.692 6.71642
569.231 258.462 10.199
568.462 259.231 10.4478
567.692 259.231 10.4478
538.462 270.769 14.1791
537.692 270.769 14.1791
506.923 276.154 15.9204
506.154 276.923 16.1692
505.385 276.923 16.1692
475.385 293.077 21.393
474.615 293.077 21.393
446.154 308.462 26.3682
445.385 308.462 26.3682
409.231 324.615 31.592
408.462 325.385 31.8408
839.231 236.154 2.73632
838.462 234.615 2.23881
837.692 234.615 2.23881
836.923 234.615 2.23881
836.154 234.615 2.23881
835.385 234.615 2.23881
834.615 234.615 2.23881
833.846 234.615 2.23881
833.077 234.615 2.23881
832.308 234.615 2.23881
831.538 234.615 2.23881
830.769 234.615 2.23881
830 234.615 2.23881
829.231 234.615 2.23881
828.462 234.615 2.23881
827.692 234.615 2.23881
826.923 234.615 2.23881
826.154 234.615 2.23881
825.385 234.615 2.23881
824.615 234.615 2.23881
823.846 234.615 2.23881
823.077 234.615 2.23881
822.308 234.615 2.23881
821.538 234.615 2.23881
820.769 234.615 2.23881
820 234.615 2.23881
819.231 234.615 2.23881
818.462 234.615 2.23881
817.692 234.615 2.23881
816.923 234.615 2.23881
816.154 234.615 2.23881
815.385 234.615 2.23881
814.615 234.615 2.23881
813.846 234.615 2.23881
813.077 234.615 2.23881
812.308 234.615 2.23881
811.538 234.615 2.23881
810.769 234.615 2.23881
810 234.615 2.23881
809.231 234.615 2.23881
808.462 234.615 2.23881
807.692 234.615 2.23881
806.923 234.615 2.23881
806.154 234.615 2.23881
805.385 234.615 2.23881
804.615 234.615 2.23881
803.846 234.615 2.23881
803.077 234.615 2.23881
802.308 234.615 2.23881
801.538 234.615 2.23881
800.769 234.615 2.23881
800 234.615 2.23881
799.231 234.615 2.23881
798.462 234.615 2.23881
797.692 234.615 2.23881
796.923 234.615 2.23881
796.154 234.615 2.23881
795.385 234.615 2.23881
794.615 234.615 2.23881
793.846 234.615 2.23881
793.077 234.615 2.23881
792.308 234.615 2.23881
763.846 234.615 2.23881
763.077 234.615 2.23881
762.308 234.615 2.23881
761.538 234.615 2.23881
760.769 234.615 2.23881
760 234.615 2.23881
759.231 234.615 2.23881
758.462 234.615 2.23881
757.692 234.615 2.23881
756.923 234.615 2.23881
756.154 234.615 2.23881
755.385 234.615 2.23881
754.615 234.615 2.23881
753.846 234.615 2.23881
753.077 234.615 2.23881
752.308 234.615 2.23881
751.538 234.615 2.23881
750.769 234.615 2.23881
750 234.615 2.23881
749.231 234.615 2.23881
748.462 234.615 2.23881
747.692 234.615 2.23881
746.923 234.615 2.23881
746.154 234.615 2.23881
745.385 234.615 2.23881
744.615 234.615 2.23881
743.846 234.615 2.23881
743.077 234.615 2.23881
742.308 234.615 2.23881
741.538 234.615 2.23881
740.769 234.615 2.23881
740 234.615 2.23881
739.231 234.615 2.23881
738.462 234.615 2.23881
737.692 234.615 2.23881
736.923 234.615 2.23881
736.154 234.615 2.23881
735.385 234.615 2.23881
734.615 234.615 2.23881
733.846 234.615 2.23881
733.077 234.615 2.23881
732.308 234.615 2.23881
625.385 235.385 2.48756
599.231 247.692 6.46766
570.769 259.231 10.199
570 259.231 10.199
569.231 259.231 10.199
539.231 270.769 13.9303
509.231 276.154 15.6716
508.462 276.923 15.9204
507.692 276.923 15.9204
506.923 276.923 15.9204
477.692 293.077 21.1443
476.923 293.077 21.1443
476.154 293.077 21.1443
448.462 308.462 26.1194
447.692 308.462 26.1194
446.923 308.462 26.1194
412.308 324.615 31.3433
411.538 325.385 31.592
410.769 325.385 31.592
410 325.385 31.592
409.231 325.385 31.592
839.231 236.923 2.73632
731.538 234.615 1.99005
730.769 234.615 1.99005
730 234.615 1.99005
729.231 234.615 1.99005
728.462 234.615 1.99005
727.692 234.615 1.99005
726.923 234.615 1.99005
726.154 234.615 1.99005
725.385 234.615 1.99005
724.615 234.615 1.99005
723.846 234.615 1.99005
723.077 234.615 1.99005
722.308 234.615 1.99005
721.538 234.615 1.99005
720.769 234.615 1.99005
720 234.615 1.99005
719.231 234.615 1.99005
718.462 234.615 1.99005
717.692 234.615 1.99005
716.923 234.615 1.99005
716.154 234.615 1.99005
715.385 234.615 1.99005
714.615 234.615 1.99005
713.846 234.615 1.99005
713.077 234.615 1.99005
712.308 234.615 1.99005
711.538 234.615 1.99005
710.769 234.615 1.99005
710 234.615 1.99005
709.231 234.615 1.99005
708.462 234.615 1.99005
707.692 234.615 1.99005
626.154 235.385 2.23881
601.538 247.692 6.21891
600.769 247.692 6.21891
600 247.692 6.21891
573.077 259.231 9.95025
572.308 259.231 9.95025
571.538 259.231 9.95025
542.308 270.769 13.6816
541.538 270.769 13.6816
540.769 270.769 13.6816
540 270.769 13.6816
511.538 276.154 15.4229
510.769 276.923 15.6716
510 276.923 15.6716
509.231 276.923 15.6716
480.769 292.308 20.6468
480 293.077 20.8955
479.231 293.077 20.8955
478.462 293.077 20.8955
450 308.462 25.8706
449.231 308.462 25.8706
448.462 309.231 26.1194
414.615 325.385 31.3433
413.846 325.385 31.3433
413.077 325.385 31.3433
412.308 325.385 31.3433
839.231 237.692 2.73632
706.923 234.615 1.74129
706.154 234.615 1.74129
705.385 234.615 1.74129
704.615 234.615 1.74129
703.846 234.615 1.74129
703.077 234.615 1.74129
702.308 234.615 1.74129
701.538 234.615 1.74129
700.769 234.615 1.74129
700 234.615 1.74129
699.231 234.615 1.74129
698.462 234.615 1.74129
697.692 234.615 1.74129
696.923 234.615 1.74129
696.154 234.615 1.74129
695.385 234.615 1.74129
694.615 234.615 1.74129
693.846 234.615 1.74129
693.077 234.615 1.74129
692.308 234.615 1.74129
691.538 234.615 1.74129
690.769 234.615 1.74129
690 234.615 1.74129
689.231 234.615 1.74129
688.462 234.615 1.74129
687.692 234.615 1.74129
686.923 234.615 1.74129
686.154 234.615 1.74129
685.385 234.615 1.74129
684.615 234.615 1.74129
683.846 234.615 1.74129
603.077 247.692 5.97015
602.308 247.692 5.97015
575.385 259.231 9.70149
574.615 259.231 9.70149
573.846 259.231 9.70149
544.615 270 13.1841
543.846 270.769 13.4328
543.077 270.769 13.4328
513.077 276.923 15.4229
512.308 276.923 15.4229
511.538 276.923 15.4229
482.308 293.077 20.6468
481.538 293.077 20.6468
480.769 293.077 20.6468
451.538 308.462 25.6219
450.769 308.462 25.6219
416.154 325.385 31.0945
415.385 325.385 31.0945
839.231 238.462 2.73632
683.077 234.615 1.49254
682.308 234.615 1.49254
681.538 234.615 1.49254
680.769 234.615 1.49254
680 234.615 1.49254
679.231 234.615 1.49254
678.462 234.615 1.49254
677.692 234.615 1.49254
676.923 234.615 1.49254
676.154 234.615 1.49254
675.385 234.615 1.49254
674.615 234.615 1.49254
673.846 234.615 1.49254
673.077 234.615 1.49254
672.308 234.615 1.49254
671.538 234.615 1.49254
670.769 234.615 1.49254
670 234.615 1.49254
669.231 234.615 1.49254
668.462 234.615 1.49254
667.692 234.615 1.49254
666.923 234.615 1.49254
650 234.615 1.49254
649.231 234.615 1.49254
648.462 234.615 1.49254
647.692 234.615 1.49254
604.615 247.692 5.72139
603.846 247.692 5.72139
576.923 259.231 9.45274
576.154 259.231 9.45274
546.154 270 12.9353
545.385 270.769 13.1841
544.615 270.769 13.1841
515.385 276.923 15.1741
514.615 276.923 15.1741
513.846 276.923 15.1741
482.308 293.846 20.6468
452.308 308.462 25.3731
417.692 325.385 30.8458
416.923 325.385 30.8458
149.231 240 3.23383
148.462 240 3.23383
147.692 240 3.23383
146.923 240 3.23383
146.154 240 3.23383
145.385 240 3.23383
144.615 240 3.23383
143.846 240 3.23383
143.077 240 3.23383
142.308 240 3.23383
141.538 240 3.23383
140.769 240 3.23383
140 240 3.23383
139.231 240 3.23383
138.462 240 3.23383
137.692 240 3.23383
136.923 240 3.23383
136.154 240 3.23383
135.385 240 3.23383
134.615 240 3.23383
133.846 240 3.23383
133.077 240 3.23383
132.308 240 3.23383
131.538 240 3.23383
130.769 240 3.23383
130 240 3.23383
129.231 240 3.23383
128.462 240 3.23383
127.692 240 3.23383
126.923 240 3.23383
126.154 240 3.23383
125.385 240 3.23383
124.615 240 3.23383
123.846 240 3.23383
123.077 240 3.23383
122.308 240 3.23383
121.538 240 3.23383
120.769 240 3.23383
120 240 3.23383
96.9231 240 3.23383
96.1538 240 3.23383
95.3846 240 3.23383
94.6154 240 3.23383
93.8461 240 3.23383
93.0769 240 3.23383
92.3077 240 3.23383
91.5385 240 3.23383
90.7692 240 3.23383
90 240 3.23383
89.2308 240 3.23383
88.4615 240 3.23383
87.6923 240 3.23383
86.9231 240 3.23383
86.1538 240 3.23383
85.3846 240 3.23383
84.6154 240 3.23383
83.8461 240 3.23383
83.0769 240 3.23383
82.3077 240 3.23383
81.5385 240 3.23383
80.7692 240 3.23383
80 240 3.23383
79.2308 240 3.23383
78.4615 240 3.23383
77.6923 240 3.23383
76.9231 240 3.23383
76.1538 240 3.23383
75.3846 240 3.23383
74.6154 240 3.23383
73.8461 240 3.23383
73.0769 240 3.23383
72.3077 240 3.23383
71.5385 240 3.23383
70.7692 240 3.23383
70 240 3.23383
69.2308 240 3.23383
68.4615 240 3.23383
67.6923 240 3.23383
50 240 3.23383
49.2308 240 3.23383
666.154 234.615 1.24378
665.385 234.615 1.24378
664.615 234.615 1.24378
663.846 234.615 1.24378
663.077 234.615 1.24378
662.308 234.615 1.24378
661.538 234.615 1.24378
660.769 234.615 1.24378
660 234.615 1.24378
659.231 234.615 1.24378
658.462 234.615 1.24378
657.692 234.615 1.24378
656.923 234.615 1.24378
656.154 234.615 1.24378
655.385 234.615 1.24378
654.615 234.615 1.24378
653.846 234.615 1.24378
653.077 234.615 1.24378
652.308 234.615 1.24378
651.538 234.615 1.24378
650.769 234.615 1.24378
646.923 234.615 1.24378
646.154 234.615 1.24378
645.385 234.615 1.24378
644.615 234.615 1.24378
643.846 234.615 1.24378
643.077 234.615 1.24378
642.308 234.615 1.24378
641.538 234.615 1.24378
640.769 234.615 1.24378
640 234.615 1.24378
639.231 234.615 1.24378
638.462 234.615 1.24378
637.692 234.615 1.24378
636.923 234.615 1.24378
636.154 234.615 1.24378
635.385 234.615 1.24378
634.615 234.615 1.24378
633.846 234.615 1.24378
633.077 234.615 1.24378
632.308 234.615 1.24378
631.538 234.615 1.24378
606.154 246.923 5.22388
605.385 247.692 5.47264
578.462 259.231 9.20398
577.692 259.231 9.20398
547.692 270.769 12.9353
546.923 270.769 12.9353
546.154 270.769 12.9353
516.154 276.154 14.6766
483.846 293.077 20.1493
483.077 293.077 20.1493
453.846 308.462 25.1244
453.077 308.462 25.1244
419.231 325.385 30.597
418.462 325.385 30.597
192.308 240 2.98507
191.538 240 2.98507
190.769 240 2.98507
190 240 2.98507
189.231 240 2.98507
188.462 240 2.98507
187.692 240 2.98507
186.923 240 2.98507
186.154 240 2.98507
185.385 240 2.98507
184.615 240 2.98507
183.846 240 2.98507
183.077 240 2.98507
182.308 240 2.98507
181.538 240 2.98507
180.769 240 2.98507
180 240 2.98507
179.231 240 2.98507
178.462 240 2.98507
177.692 240 2.98507
176.923 240 2.98507
176.154 240 2.98507
175.385 240 2.98507
174.615 240 2.98507
173.846 240 2.98507
173.077 240 2.98507
172.308 240 2.98507
171.538 240 2.98507
170.769 240 2.98507
170 240 2.98507
169.231 240 2.98507
168.462 240 2.98507
167.692 240 2.98507
166.923 240 2.98507
166.154 240 2.98507
165.385 240 2.98507
164.615 240 2.98507
163.846 240 2.98507
163.077 240 2.98507
162.308 240 2.98507
161.538 240 2.98507
160.769 240 2.98507
160 240 2.98507
159.231 240 2.98507
158.462 240 2.98507
157.692 240 2.98507
156.923 240 2.98507
156.154 240 2.98507
155.385 240 2.98507
154.615 240 2.98507
153.846 240 2.98507
153.077 240 2.98507
152.308 240 2.98507
151.538 240 2.98507
150.769 240 2.98507
150 240 2.98507
119.231 240 2.98507
118.462 240 2.98507
117.692 240 2.98507
116.923 240 2.98507
116.154 240 2.98507
115.385 240 2.98507
114.615 240 2.98507
113.846 240 2.98507
113.077 240 2.98507
112.308 240 2.98507
111.538 240 2.98507
110.769 240 2.98507
110 240 2.98507
109.231 240 2.98507
108.462 240 2.98507
107.692 240 2.98507
106.923 240 2.98507
106.154 240 2.98507
105.385 240 2.98507
104.615 240 2.98507
103.846 240 2.98507
103.077 240 2.98507
102.308 240 2.98507
101.538 240 2.98507
100.769 240 2.98507
100 240 2.98507
99.2308 240 2.98507
98.4615 240 2.98507
97.6923 240 2.98507
66.9231 240 2.98507
66.1538 240 2.98507
65.3846 240 2.98507
64.6154 240 2.98507
63.8461 240 2.98507
63.0769 240 2.98507
62.3077 240 2.98507
61.5385 240 2.98507
60.7692 240 2.98507
60 240 2.98507
59.2308 240 2.98507
58.4615 240 2.98507
57.6923 240 2.98507
56.9231 240 2.98507
56.1538 240 2.98507
55.3846 240 2.98507
54.6154 240 2.98507
53.8461 240 2.98507
53.0769 240 2.98507
52.3077 240 2.98507
51.5385 240 2.98507
50.7692 240 2.98507
607.692 247.692 5.22388
606.923 247.692 5.22388
606.154 247.692 5.22388
580.769 259.231 8.95522
580 259.231 8.95522
579.231 259.231 8.95522
550 270.769 12.6866
549.231 270.769 12.6866
548.462 270.769 12.6866
518.462 276.154 14.4279
517.692 276.923 14.6766
516.923 276.923 14.6766
516.154 276.923 14.6766
486.154 293.077 19.9005
485.385 293.077 19.9005
484.615 293.077 19.9005
455.385 308.462 24.8756
454.615 308.462 24.8756
224.615 240 2.73632
223.846 240 2.73632
223.077 240 2.73632
222.308 240 2.73632
221.538 240 2.73632
220.769 240 2.73632
220 240 2.73632
219.231 240 2.73632
218.462 240 2.73632
217.692 240 2.73632
216.923 240 2.73632
216.154 240 2.73632
215.385 240 2.73632
214.615 240 2.73632
213.846 240 2.73632
213.077 240 2.73632
212.308 240 2.73632
211.538 240 2.73632
210.769 240 2.73632
210 240 2.73632
209.231 240 2.73632
208.462 240 2.73632
207.692 240 2.73632
206.923 240 2.73632
206.154 240 2.73632
205.385 240 2.73632
204.615 240 2.73632
203.846 240 2.73632
203.077 240 2.73632
202.308 240 2.73632
201.538 240 2.73632
200.769 240 2.73632
200 240 2.73632
199.231 240 2.73632
198.462 240 2.73632
197.692 240 2.73632
196.923 240 2.73632
196.154 240 2.73632
195.385 240 2.73632
194.615 240 2.73632
193.846 240 2.73632
193.077 240 2.73632
609.231 247.692 4.97512
608.462 247.692 4.97512
583.077 258.462 8.45771
582.308 259.231 8.70647
581.538 259.231 8.70647
552.308 270 12.1891
551.538 270.769 12.4378
550.769 270.769 12.4378
520 276.923 14.4279
519.231 276.923 14.4279
518.462 276.923 14.4279
488.462 292.308 19.403
487.692 293.077 19.6517
486.923 293.077 19.6517
457.692 308.462 24.6269
456.923 308.462 24.6269
456.154 308.462 24.6269
455.385 309.231 24.8756
420.769 325.385 30.0995
420 325.385 30.0995
252.308 240 2.48756
251.538 240 2.48756
250.769 240 2.48756
250 240 2.48756
249.231 240 2.48756
248.462 240 2.48756
247.692 240 2.48756
246.923 240 2.48756
246.154 240 2.48756
245.385 240 2.48756
244.615 240 2.48756
243.846 240 2.48756
243.077 240 2.48756
242.308 240 2.48756
241.538 240 2.48756
240.769 240 2.48756
240 240 2.48756
239.231 240 2.48756
238.462 240 2.48756
237.692 240 2.48756
236.923 240 2.48756
236.154 240 2.48756
235.385 240 2.48756
234.615 240 2.48756
233.846 240 2.48756
233.077 240 2.48756
232.308 240 2.48756
231.538 240 2.48756
230.769 240 2.48756
230 240 2.48756
229.231 240 2.48756
228.462 240 2.48756
227.692 240 2.48756
226.923 240 2.48756
226.154 240 2.48756
225.385 240 2.48756
29.2308 240.769 2.73632
610.769 247.692 4.72637
610 247.692 4.72637
585.385 258.462 8.20896
584.615 259.231 8.45771
583.846 259.231 8.45771
583.077 259.231 8.45771
553.077 270.769 12.1891
552.308 270.769 12.1891
522.308 276.923 14.1791
521.538 276.923 14.1791
520.769 276.923 14.1791
490 292.308 19.1542
489.231 293.077 19.403
488.462 293.077 19.403
460 308.462 24.3781
459.231 308.462 24.3781
458.462 308.462 24.3781
423.077 325.385 29.8507
422.308 325.385 29.8507
421.538 325.385 29.8507
28.4615 240.769 2.48756
27.6923 240.769 2.48756
613.077 247.692 4.47761
612.308 247.692 4.47761
611.538 247.692 4.47761
588.462 259.231 8.20896
587.692 259.231 8.20896
586.923 259.231 8.20896
586.154 259.231 8.20896
585.385 259.231 8.20896
556.154 270.769 11.9403
555.385 270.769 11.9403
554.615 270.769 11.9403
553.846 270.769 11.9403
525.385 276.154 13.6816
524.615 276.923 13.9303
523.846 276.923 13.9303
523.077 276.923 13.9303
491.538 293.077 19.1542
490.769 293.077 19.1542
490 293.077 19.1542
461.538 307.692 23.8806
460.769 308.462 24.1294
424.615 325.385 29.602
423.846 325.385 29.602
613.846 246.923 3.9801
613.077 248.462 4.47761
589.231 259.231 7.9602
526.923 276.154 13.4328
526.154 276.923 13.6816
525.385 276.923 13.6816
493.846 292.308 18.6567
493.077 293.077 18.9055
492.308 293.077 18.9055
463.077 308.462 23.8806
462.308 308.462 23.8806
461.538 308.462 23.8806
426.154 325.385 29.3532
425.385 325.385 29.3532
616.154 247.692 3.9801
615.385 247.692 3.9801
614.615 247.692 3.9801
613.846 247.692 3.9801
590 259.231 7.71144
558.462 270.769 11.4428
557.692 270.769 11.4428
556.923 270.769 11.4428
528.462 276.154 13.1841
527.692 276.923 13.4328
526.923 276.923 13.4328
496.154 293.077 18.6567
495.385 293.077 18.6567
494.615 293.077 18.6567
493.846 293.077 18.6567
465.385 308.462 23.6318
464.615 308.462 23.6318
463.846 308.462 23.6318
463.077 309.231 23.8806
428.462 324.615 28.8557
427.692 325.385 29.1045
426.923 325.385 29.1045
617.692 247.692 3.73134
616.923 247.692 3.73134
590.769 259.231 7.46269
560 270 10.9453
559.231 270.769 11.194
530.769 276.923 13.1841
530 276.923 13.1841
529.231 276.923 13.1841
528.462 276.923 13.1841
496.923 293.077 18.408
496.154 293.846 18.6567
430.769 324.615 28.607
430 325.385 28.8557
429.231 325.385 28.8557
428.462 325.385 28.8557
618.462 247.692 3.48259
592.308 259.231 7.21393
591.538 259.231 7.21393
562.308 270.769 10.9453
561.538 270.769 10.9453
560.769 270.769 10.9453
560 270.769 10.9453
533.077 276.154 12.6866
532.308 276.923 12.9353
531.538 276.923 12.9353
498.462 292.308 17.9104
497.692 293.077 18.1592
467.692 308.462 23.1343
466.923 308.462 23.1343
466.154 308.462 23.1343
432.308 324.615 28.3582
431.538 325.385 28.607
430.769 325.385 28.607
620 247.692 3.23383
619.231 247.692 3.23383
593.846 259.231 6.96517
593.077 259.231 6.96517
563.846 270.769 10.6965
563.077 270.769 10.6965
533.077 276.923 12.6866
500.769 292.308 17.6617
500 293.077 17.9104
499.231 293.077 17.9104
498.462 293.077 17.9104
469.231 307.692 22.6368
468.462 308.462 22.8856
432.308 325.385 28.3582
622.308 246.923 2.73632
621.538 247.692 2.98507
620.769 247.692 2.98507
595.385 259.231 6.71642
594.615 259.231 6.71642
566.154 270.769 10.4478
565.385 270.769 10.4478
564.615 270.769 10.4478
534.615 276.154 12.1891
533.846 276.923 12.4378
503.077 292.308 17.4129
502.308 293.077 17.6617
501.538 293.077 17.6617
500.769 293.077 17.6617
470 308.462 22.6368
469.231 308.462 22.6368
433.846 324.615 27.8607
433.077 325.385 28.1095
839.231 247.692 2.73632
793.846 247.692 2.73632
793.077 247.692 2.73632
792.308 247.692 2.73632
791.538 247.692 2.73632
790.769 247.692 2.73632
790 247.692 2.73632
789.231 247.692 2.73632
788.462 247.692 2.73632
787.692 247.692 2.73632
786.923 247.692 2.73632
786.154 247.692 2.73632
785.385 247.692 2.73632
784.615 247.692 2.73632
783.846 247.692 2.73632
783.077 247.692 2.73632
782.308 247.692 2.73632
781.538 247.692 2.73632
780.769 247.692 2.73632
780 247.692 2.73632
779.231 247.692 2.73632
778.462 247.692 2.73632
777.692 247.692 2.73632
776.923 247.692 2.73632
776.154 247.692 2.73632
775.385 247.692 2.73632
774.615 247.692 2.73632
773.846 247.692 2.73632
773.077 247.692 2.73632
772.308 247.692 2.73632
771.538 247.692 2.73632
770.769 247.692 2.73632
770 247.692 2.73632
769.231 247.692 2.73632
768.462 247.692 2.73632
767.692 247.692 2.73632
766.923 247.692 2.73632
766.154 247.692 2.73632
765.385 247.692 2.73632
764.615 247.692 2.73632
763.846 247.692 2.73632
763.077 247.692 2.73632
762.308 247.692 2.73632
761.538 247.692 2.73632
760.769 247.692 2.73632
760 247.692 2.73632
759.231 247.692 2.73632
758.462 247.692 2.73632
757.692 247.692 2.73632
756.923 247.692 2.73632
756.154 247.692 2.73632
755.385 247.692 2.73632
754.615 247.692 2.73632
753.846 247.692 2.73632
753.077 247.692 2.73632
752.308 247.692 2.73632
751.538 247.692 2.73632
750.769 247.692 2.73632
750 247.692 2.73632
749.231 247.692 2.73632
748.462 247.692 2.73632
747.692 247.692 2.73632
746.923 247.692 2.73632
746.154 247.692 2.73632
623.077 246.923 2.48756
622.308 247.692 2.73632
597.692 258.462 6.21891
596.923 259.231 6.46766
596.154 259.231 6.46766
567.692 270 9.95025
566.923 270.769 10.199
536.923 276.923 12.1891
536.154 276.923 12.1891
535.385 276.923 12.1891
534.615 276.923 12.1891
504.615 292.308 17.1642
503.846 293.077 17.4129
503.077 293.077 17.4129
473.077 308.462 22.3881
472.308 308.462 22.3881
471.538 308.462 22.3881
470.769 308.462 22.3881
434.615 325.385 27.8607
433.846 325.385 27.8607
839.231 248.462 2.73632
838.462 247.692 2.48756
837.692 247.692 2.48756
836.923 247.692 2.48756
836.154 247.692 2.48756
835.385 247.692 2.48756
834.615 247.692 2.48756
833.846 247.692 2.48756
833.077 247.692 2.48756
832.308 247.692 2.48756
831.538 247.692 2.48756
830.769 247.692 2.48756
830 247.692 2.48756
829.231 247.692 2.48756
828.462 247.692 2.48756
827.692 247.692 2.48756
826.923 247.692 2.48756
826.154 247.692 2.48756
825.385 247.692 2.48756
824.615 247.692 2.48756
823.846 247.692 2.48756
823.077 247.692 2.48756
822.308 247.692 2.48756
821.538 247.692 2.48756
820.769 247.692 2.48756
820 247.692 2.48756
819.231 247.692 2.48756
818.462 247.692 2.48756
817.692 247.692 2.48756
816.923 247.692 2.48756
816.154 247.692 2.48756
815.385 247.692 2.48756
814.615 247.692 2.48756
813.846 247.692 2.48756
813.077 247.692 2.48756
812.308 247.692 2.48756
811.538 247.692 2.48756
810.769 247.692 2.48756
810 247.692 2.48756
809.231 247.692 2.48756
808.462 247.692 2.48756
807.692 247.692 2.48756
806.923 247.692 2.48756
806.154 247.692 2.48756
805.385 247.692 2.48756
804.615 247.692 2.48756
803.846 247.692 2.48756
803.077 247.692 2.48756
802.308 247.692 2.48756
801.538 247.692 2.48756
800.769 247.692 2.48756
800 247.692 2.48756
799.231 247.692 2.48756
798.462 247.692 2.48756
797.692 247.692 2.48756
796.923 247.692 2.48756
796.154 247.692 2.48756
795.385 247.692 2.48756
794.615 247.692 2.48756
745.385 247.692 2.48756
744.615 247.692 2.48756
743.846 247.692 2.48756
743.077 247.692 2.48756
742.308 247.692 2.48756
741.538 247.692 2.48756
740.769 247.692 2.48756
740 247.692 2.48756
739.231 247.692 2.48756
738.462 247.692 2.48756
737.692 247.692 2.48756
736.923 247.692 2.48756
736.154 247.692 2.48756
735.385 247.692 2.48756
734.615 247.692 2.48756
733.846 247.692 2.48756
733.077 247.692 2.48756
732.308 247.692 2.48756
731.538 247.692 2.48756
730.769 247.692 2.48756
730 247.692 2.48756
729.231 247.692 2.48756
728.462 247.692 2.48756
727.692 247.692 2.48756
726.923 247.692 2.48756
726.154 247.692 2.48756
725.385 247.692 2.48756
724.615 247.692 2.48756
723.846 247.692 2.48756
723.077 247.692 2.48756
722.308 247.692 2.48756
721.538 247.692 2.48756
720.769 247.692 2.48756
720 247.692 2.48756
623.846 247.692 2.48756
623.077 247.692 2.48756
599.231 259.231 6.21891
598.462 259.231 6.21891
597.692 259.231 6.21891
570 270.769 9.95025
569.231 270.769 9.95025
568.462 270.769 9.95025
567.692 270.769 9.95025
539.231 276.154 11.6915
538.462 276.923 11.9403
537.692 276.923 11.9403
506.923 292.308 16.9154
506.154 293.077 17.1642
505.385 293.077 17.1642
504.615 293.077 17.1642
475.385 307.692 21.8905
474.615 308.462 22.1393
473.846 308.462 22.1393
438.462 324.615 27.3632
437.692 325.385 27.6119
436.923 325.385 27.6119
436.154 325.385 27.6119
435.385 325.385 27.6119
839.231 249.231 2.73632
719.231 247.692 2.23881
718.462 247.692 2.23881
717.692 247.692 2.23881
716.923 247.692 2.23881
716.154 247.692 2.23881
715.385 247.692 2.23881
714.615 247.692 2.23881
713.846 247.692 2.23881
713.077 247.692 2.23881
712.308 247.692 2.23881
711.538 247.692 2.23881
710.769 247.692 2.23881
710 247.692 2.23881
709.231 247.692 2.23881
708.462 247.692 2.23881
707.692 247.692 2.23881
706.923 247.692 2.23881
706.154 247.692 2.23881
705.385 247.692 2.23881
704.615 247.692 2.23881
703.846 247.692 2.23881
703.077 247.692 2.23881
702.308 247.692 2.23881
701.538 247.692 2.23881
700.769 247.692 2.23881
700 247.692 2.23881
699.231 247.692 2.23881
698.462 247.692 2.23881
697.692 247.692 2.23881
696.923 247.692 2.23881
624.615 247.692 2.23881
600.769 259.231 5.97015
600 259.231 5.97015
572.308 270.769 9.70149
571.538 270.769 9.70149
570.769 270.769 9.70149
540.769 276.923 11.6915
540 276.923 11.6915
539.231 276.923 11.6915
508.462 293.077 16.9154
507.692 293.077 16.9154
506.923 293.077 16.9154
476.154 308.462 21.8905
475.385 308.462 21.8905
440 324.615 27.1144
439.231 325.385 27.3632
438.462 325.385 27.3632
839.231 250 2.73632
696.154 247.692 1.99005
695.385 247.692 1.99005
694.615 247.692 1.99005
693.846 247.692 1.99005
693.077 247.692 1.99005
692.308 247.692 1.99005
691.538 247.692 1.99005
690.769 247.692 1.99005
690 247.692 1.99005
689.231 247.692 1.99005
688.462 247.692 1.99005
687.692 247.692 1.99005
686.923 247.692 1.99005
686.154 247.692 1.99005
685.385 247.692 1.99005
684.615 247.692 1.99005
683.846 247.692 1.99005
683.077 247.692 1.99005
682.308 247.692 1.99005
681.538 247.692 1.99005
680.769 247.692 1.99005
680 247.692 1.99005
679.231 247.692 1.99005
678.462 247.692 1.99005
677.692 247.692 1.99005
676.923 247.692 1.99005
676.154 247.692 1.99005
675.385 247.692 1.99005
674.615 247.692 1.99005
673.846 247.692 1.99005
601.538 259.231 5.72139
574.615 270 9.20398
573.846 270.769 9.45274
573.077 270.769 9.45274
541.538 276.923 11.4428
510.769 293.077 16.6667
510 293.077 16.6667
509.231 293.077 16.6667
477.692 308.462 21.6418
476.923 308.462 21.6418
441.538 324.615 26.8657
440.769 325.385 27.1144
440 325.385 27.1144
118.462 252.308 3.48259
117.692 252.308 3.48259
116.923 252.308 3.48259
116.154 252.308 3.48259
115.385 252.308 3.48259
114.615 252.308 3.48259
113.846 252.308 3.48259
113.077 252.308 3.48259
112.308 252.308 3.48259
111.538 252.308 3.48259
110.769 252.308 3.48259
110 252.308 3.48259
109.231 252.308 3.48259
108.462 252.308 3.48259
107.692 252.308 3.48259
106.923 252.308 3.48259
106.154 252.308 3.48259
105.385 252.308 3.48259
104.615 252.308 3.48259
103.846 252.308 3.48259
103.077 252.308 3.48259
70 252.308 3.48259
69.2308 252.308 3.48259
68.4615 252.308 3.48259
67.6923 252.308 3.48259
66.9231 252.308 3.48259
66.1538 252.308 3.48259
65.3846 252.308 3.48259
64.6154 252.308 3.48259
63.8461 252.308 3.48259
63.0769 252.308 3.48259
62.3077 252.308 3.48259
61.5385 252.308 3.48259
60.7692 252.308 3.48259
60 252.308 3.48259
59.2308 252.308 3.48259
58.4615 252.308 3.48259
57.6923 252.308 3.48259
56.9231 252.308 3.48259
56.1538 252.308 3.48259
55.3846 252.308 3.48259
54.6154 252.308 3.48259
53.8461 252.308 3.48259
53.0769 252.308 3.48259
52.3077 252.308 3.48259
51.5385 252.308 3.48259
50.7692 252.308 3.48259
50 252.308 3.48259
49.2308 252.308 3.48259
48.4615 252.308 3.48259
47.6923 252.308 3.48259
46.9231 252.308 3.48259
46.1538 252.308 3.48259
673.077 247.692 1.74129
672.308 247.692 1.74129
671.538 247.692 1.74129
670.769 247.692 1.74129
670 247.692 1.74129
669.231 247.692 1.74129
668.462 247.692 1.74129
667.692 247.692 1.74129
666.923 247.692 1.74129
666.154 247.692 1.74129
665.385 247.692 1.74129
664.615 247.692 1.74129
663.846 247.692 1.74129
663.077 247.692 1.74129
662.308 247.692 1.74129
661.538 247.692 1.74129
660.769 247.692 1.74129
660 247.692 1.74129
659.231 247.692 1.74129
658.462 247.692 1.74129
657.692 247.692 1.74129
656.923 247.692 1.74129
656.154 247.692 1.74129
655.385 247.692 1.74129
654.615 247.692 1.74129
653.846 247.692 1.74129
653.077 247.692 1.74129
652.308 247.692 1.74129
651.538 247.692 1.74129
648.462 247.692 1.74129
647.692 247.692 1.74129
646.923 247.692 1.74129
646.154 247.692 1.74129
645.385 247.692 1.74129
644.615 247.692 1.74129
643.846 247.692 1.74129
643.077 247.692 1.74129
642.308 247.692 1.74129
641.538 247.692 1.74129
640.769 247.692 1.74129
640 247.692 1.74129
639.231 247.692 1.74129
638.462 247.692 1.74129
637.692 247.692 1.74129
636.923 247.692 1.74129
636.154 247.692 1.74129
635.385 247.692 1.74129
634.615 247.692 1.74129
633.846 247.692 1.74129
633.077 247.692 1.74129
632.308 247.692 1.74129
631.538 247.692 1.74129
630.769 247.692 1.74129
630 247.692 1.74129
604.615 259.231 5.47264
603.846 259.231 5.47264
603.077 259.231 5.47264
602.308 259.231 5.47264
576.154 270.769 9.20398
575.385 270.769 9.20398
574.615 270.769 9.20398
545.385 276.923 11.194
544.615 276.923 11.194
543.846 276.923 11.194
543.077 276.923 11.194
542.308 276.923 11.194
512.308 293.077 16.4179
511.538 293.077 16.4179
478.462 308.462 21.393
443.077 325.385 26.8657
442.308 325.385 26.8657
441.538 325.385 26.8657
168.462 252.308 3.23383
167.692 252.308 3.23383
166.923 252.308 3.23383
166.154 252.308 3.23383
165.385 252.308 3.23383
164.615 252.308 3.23383
163.846 252.308 3.23383
163.077 252.308 3.23383
162.308 252.308 3.23383
161.538 252.308 3.23383
160.769 252.308 3.23383
160 252.308 3.23383
159.231 252.308 3.23383
158.462 252.308 3.23383
157.692 252.308 3.23383
156.923 252.308 3.23383
156.154 252.308 3.23383
155.385 252.308 3.23383
154.615 252.308 3.23383
153.846 252.308 3.23383
153.077 252.308 3.23383
152.308 252.308 3.23383
151.538 252.308 3.23383
150.769 252.308 3.23383
150 252.308 3.23383
149.231 252.308 3.23383
148.462 252.308 3.23383
147.692 252.308 3.23383
146.923 252.308 3.23383
146.154 252.308 3.23383
145.385 252.308 3.23383
144.615 252.308 3.23383
143.846 252.308 3.23383
143.077 252.308 3.23383
142.308 252.308 3.23383
141.538 252.308 3.23383
140.769 252.308 3.23383
140 252.308 3.23383
139.231 252.308 3.23383
138.462 252.308 3.23383
137.692 252.308 3.23383
136.923 252.308 3.23383
136.154 252.308 3.23383
135.385 252.308 3.23383
134.615 252.308 3.23383
133.846 252.308 3.23383
133.077 252.308 3.23383
132.308 252.308 3.23383
131.538 252.308 3.23383
130.769 252.308 3.23383
130 252.308 3.23383
129.231 252.308 3.23383
128.462 252.308 3.23383
127.692 252.308 3.23383
126.923 252.308 3.23383
126.154 252.308 3.23383
125.385 252.308 3.23383
124.615 252.308 3.23383
123.846 252.308 3.23383
123.077 252.308 3.23383
122.308 252.308 3.23383
121.538 252.308 3.23383
120.769 252.308 3.23383
120 252.308 3.23383
119.231 252.308 3.23383
102.308 252.308 3.23383
101.538 252.308 3.23383
100.769 252.308 3.23383
100 252.308 3.23383
99.2308 252.308 3.23383
98.4615 252.308 3.23383
97.6923 252.308 3.23383
96.9231 252.308 3.23383
96.1538 252.308 3.23383
95.3846 252.308 3.23383
94.6154 252.308 3.23383
93.8461 252.308 3.23383
93.0769 252.308 3.23383
92.3077 252.308 3.23383
91.5385 252.308 3.23383
90.7692 252.308 3.23383
90 252.308 3.23383
89.2308 252.308 3.23383
88.4615 252.308 3.23383
87.6923 252.308 3.23383
86.9231 252.308 3.23383
86.1538 252.308 3.23383
85.3846 252.308 3.23383
84.6154 252.308 3.23383
83.8461 252.308 3.23383
83.0769 252.308 3.23383
82.3077 252.308 3.23383
81.5385 252.308 3.23383
80.7692 252.308 3.23383
80 252.308 3.23383
79.2308 252.308 3.23383
78.4615 252.308 3.23383
77.6923 252.308 3.23383
76.9231 252.308 3.23383
76.1538 252.308 3.23383
75.3846 252.308 3.23383
74.6154 252.308 3.23383
73.8461 252.308 3.23383
73.0769 252.308 3.23383
72.3077 252.308 3.23383
71.5385 252.308 3.23383
70.7692 252.308 3.23383
45.3846 252.308 3.23383
44.6154 252.308 3.23383
43.8461 252.308 3.23383
43.0769 252.308 3.23383
650.769 247.692 1.49254
650 247.692 1.49254
649.231 247.692 1.49254
606.154 259.231 5.22388
605.385 259.231 5.22388
579.231 270 8.70647
578.462 270.769 8.95522
577.692 270.769 8.95522
576.923 270.769 8.95522
546.923 276.923 10.9453
546.154 276.923 10.9453
513.077 292.308 15.9204
480 308.462 21.1443
479.231 308.462 21.1443
446.154 324.615 26.3682
445.385 325.385 26.6169
444.615 325.385 26.6169
443.846 325.385 26.6169
206.923 252.308 2.98507
206.154 252.308 2.98507
205.385 252.308 2.98507
204.615 252.308 2.98507
203.846 252.308 2.98507
203.077 252.308 2.98507
202.308 252.308 2.98507
201.538 252.308 2.98507
200.769 252.308 2.98507
200 252.308 2.98507
199.231 252.308 2.98507
198.462 252.308 2.98507
197.692 252.308 2.98507
196.923 252.308 2.98507
196.154 252.308 2.98507
195.385 252.308 2.98507
194.615 252.308 2.98507
193.846 252.308 2.98507
193.077 252.308 2.98507
192.308 252.308 2.98507
191.538 252.308 2.98507
190.769 252.308 2.98507
190 252.308 2.98507
189.231 252.308 2.98507
188.462 252.308 2.98507
187.692 252.308 2.98507
186.923 252.308 2.98507
186.154 252.308 2.98507
185.385 252.308 2.98507
184.615 252.308 2.98507
183.846 252.308 2.98507
183.077 252.308 2.98507
182.308 252.308 2.98507
181.538 252.308 2.98507
180.769 252.308 2.98507
180 252.308 2.98507
179.231 252.308 2.98507
178.462 252.308 2.98507
177.692 252.308 2.98507
176.923 252.308 2.98507
176.154 252.308 2.98507
175.385 252.308 2.98507
174.615 252.308 2.98507
173.846 252.308 2.98507
173.077 252.308 2.98507
172.308 252.308 2.98507
171.538 252.308 2.98507
170.769 252.308 2.98507
170 252.308 2.98507
169.231 252.308 2.98507
607.692 259.231 4.97512
606.923 259.231 4.97512
580.769 270.769 8.70647
580 270.769 8.70647
579.231 270.769 8.70647
548.462 276.154 10.4478
547.692 276.923 10.6965
514.615 293.077 15.9204
513.846 293.077 15.9204
513.077 293.077 15.9204
482.308 307.692 20.6468
481.538 308.462 20.8955
480.769 308.462 20.8955
446.154 325.385 26.3682
239.231 252.308 2.73632
238.462 252.308 2.73632
237.692 252.308 2.73632
236.923 252.308 2.73632
236.154 252.308 2.73632
235.385 252.308 2.73632
234.615 252.308 2.73632
233.846 252.308 2.73632
233.077 252.308 2.73632
232.308 252.308 2.73632
231.538 252.308 2.73632
230.769 252.308 2.73632
230 252.308 2.73632
229.231 252.308 2.73632
228.462 252.308 2.73632
227.692 252.308 2.73632
226.923 252.308 2.73632
226.154 252.308 2.73632
225.385 252.308 2.73632
224.615 252.308 2.73632
223.846 252.308 2.73632
223.077 252.308 2.73632
222.308 252.308 2.73632
221.538 252.308 2.73632
220.769 252.308 2.73632
220 252.308 2.73632
219.231 252.308 2.73632
218.462 252.308 2.73632
217.692 252.308 2.73632
216.923 252.308 2.73632
216.154 252.308 2.73632
215.385 252.308 2.73632
214.615 252.308 2.73632
213.846 252.308 2.73632
213.077 252.308 2.73632
212.308 252.308 2.73632
211.538 252.308 2.73632
210.769 252.308 2.73632
210 252.308 2.73632
209.231 252.308 2.73632
208.462 252.308 2.73632
207.692 252.308 2.73632
608.462 259.231 4.72637
582.308 270.769 8.45771
581.538 270.769 8.45771
550.769 276.923 10.4478
550 276.923 10.4478
549.231 276.923 10.4478
548.462 276.923 10.4478
516.923 292.308 15.4229
516.154 293.077 15.6716
515.385 293.077 15.6716
483.846 308.462 20.6468
483.077 308.462 20.6468
482.308 308.462 20.6468
447.692 324.615 25.8706
446.923 325.385 26.1194
255.385 252.308 2.48756
254.615 252.308 2.48756
253.846 252.308 2.48756
253.077 252.308 2.48756
252.308 252.308 2.48756
251.538 252.308 2.48756
250.769 252.308 2.48756
250 252.308 2.48756
249.231 252.308 2.48756
248.462 252.308 2.48756
247.692 252.308 2.48756
246.923 252.308 2.48756
246.154 252.308 2.48756
245.385 252.308 2.48756
244.615 252.308 2.48756
243.846 252.308 2.48756
243.077 252.308 2.48756
242.308 252.308 2.48756
241.538 252.308 2.48756
240.769 252.308 2.48756
240 252.308 2.48756
610.769 259.231 4.47761
610 259.231 4.47761
609.231 259.231 4.47761
583.077 270.769 8.20896
552.308 276.923 10.199
551.538 276.923 10.199
519.231 292.308 15.1741
518.462 293.077 15.4229
517.692 293.077 15.4229
516.923 293.077 15.4229
485.385 308.462 20.398
484.615 308.462 20.398
483.846 309.231 20.6468
448.462 324.615 25.6219
447.692 325.385 25.8706
612.308 259.231 4.22886
611.538 259.231 4.22886
585.385 270 7.71144
584.615 270.769 7.9602
583.846 270.769 7.9602
553.077 276.923 9.95025
520.769 292.308 14.9254
520 293.077 15.1741
519.231 293.077 15.1741
488.462 308.462 20.1493
487.692 308.462 20.1493
486.923 308.462 20.1493
486.154 308.462 20.1493
451.538 324.615 25.3731
450.769 325.385 25.6219
450 325.385 25.6219
449.231 325.385 25.6219
448.462 325.385 25.6219
613.846 259.231 3.9801
613.077 259.231 3.9801
587.692 270.769 7.71144
586.923 270.769 7.71144
586.154 270.769 7.71144
585.385 270.769 7.71144
554.615 276.154 9.45274
553.846 276.923 9.70149
522.308 292.308 14.6766
521.538 293.077 14.9254
520.769 293.077 14.9254
490.769 308.462 19.9005
490 308.462 19.9005
489.231 308.462 19.9005
453.846 324.615 25.1244
453.077 325.385 25.3731
452.308 325.385 25.3731
451.538 325.385 25.3731
614.615 259.231 3.73134
590 270.769 7.46269
589.231 270.769 7.46269
588.462 270.769 7.46269
556.154 276.154 9.20398
555.385 276.923 9.45274
554.615 276.923 9.45274
524.615 293.077 14.6766
523.846 293.077 14.6766
523.077 293.077 14.6766
522.308 293.077 14.6766
491.538 307.692 19.403
490.769 309.231 19.9005
454.615 325.385 25.1244
453.846 325.385 25.1244
616.923 259.231 3.48259
616.154 259.231 3.48259
615.385 259.231 3.48259
591.538 270.769 7.21393
590.769 270.769 7.21393
558.462 276.923 9.20398
557.692 276.923 9.20398
556.923 276.923 9.20398
556.154 276.923 9.20398
526.923 292.308 14.1791
526.154 293.077 14.4279
525.385 293.077 14.4279
493.077 308.462 19.403
492.308 308.462 19.403
491.538 308.462 19.403
455.385 325.385 24.8756
619.231 258.462 2.98507
618.462 259.231 3.23383
617.692 259.231 3.23383
593.077 270 6.71642
592.308 270.769 6.96517
560 276.923 8.95522
559.231 276.923 8.95522
528.462 293.077 14.1791
527.692 293.077 14.1791
526.923 293.077 14.1791
493.846 308.462 19.1542
459.231 324.615 24.3781
458.462 325.385 24.6269
457.692 325.385 24.6269
456.923 325.385 24.6269
456.154 325.385 24.6269
620 258.462 2.73632
619.231 259.231 2.98507
594.615 270.769 6.71642
593.846 270.769 6.71642
593.077 270.769 6.71642
562.308 276.154 8.45771
561.538 276.923 8.70647
560.769 276.923 8.70647
496.923 308.462 18.9055
496.154 308.462 18.9055
495.385 308.462 18.9055
494.615 308.462 18.9055
459.231 325.385 24.3781
796.154 260 2.98507
795.385 260 2.98507
794.615 260 2.98507
793.846 260 2.98507
793.077 260 2.98507
792.308 260 2.98507
791.538 260 2.98507
790.769 260 2.98507
790 260 2.98507
789.231 260 2.98507
788.462 260 2.98507
787.692 260 2.98507
786.923 260 2.98507
786.154 260 2.98507
785.385 260 2.98507
784.615 260 2.98507
783.846 260 2.98507
783.077 260 2.98507
782.308 260 2.98507
781.538 260 2.98507
780.769 260 2.98507
780 260 2.98507
779.231 260 2.98507
778.462 260 2.98507
777.692 260 2.98507
776.923 260 2.98507
776.154 260 2.98507
775.385 260 2.98507
774.615 260 2.98507
773.846 260 2.98507
773.077 260 2.98507
772.308 260 2.98507
771.538 260 2.98507
770.769 260 2.98507
770 260 2.98507
769.231 260 2.98507
768.462 260 2.98507
767.692 260 2.98507
766.923 260 2.98507
766.154 260 2.98507
620.769 259.231 2.73632
620 259.231 2.73632
596.154 270.769 6.46766
595.385 270.769 6.46766
563.846 276.923 8.45771
563.077 276.923 8.45771
562.308 276.923 8.45771
530 292.308 13.4328
529.231 293.077 13.6816
498.462 308.462 18.6567
497.692 308.462 18.6567
496.923 309.231 18.9055
461.538 324.615 23.8806
460.769 325.385 24.1294
460 325.385 24.1294
839.231 260 2.73632
820.769 260 2.73632
820 260 2.73632
819.231 260 2.73632
818.462 260 2.73632
817.692 260 2.73632
816.923 260 2.73632
816.154 260 2.73632
815.385 260 2.73632
814.615 260 2.73632
813.846 260 2.73632
813.077 260 2.73632
812.308 260 2.73632
811.538 260 2.73632
810.769 260 2.73632
810 260 2.73632
809.231 260 2.73632
808.462 260 2.73632
807.692 260 2.73632
806.923 260 2.73632
806.154 260 2.73632
805.385 260 2.73632
804.615 260 2.73632
803.846 260 2.73632
803.077 260 2.73632
802.308 260 2.73632
801.538 260 2.73632
800.769 260 2.73632
800 260 2.73632
799.231 260 2.73632
798.462 260 2.73632
797.692 260 2.73632
796.923 260 2.73632
765.385 260 2.73632
764.615 260 2.73632
763.846 260 2.73632
763.077 260 2.73632
762.308 260 2.73632
761.538 260 2.73632
760.769 260 2.73632
760 260 2.73632
759.231 260 2.73632
758.462 260 2.73632
757.692 260 2.73632
756.923 260 2.73632
756.154 260 2.73632
755.385 260 2.73632
754.615 260 2.73632
753.846 260 2.73632
753.077 260 2.73632
752.308 260 2.73632
751.538 260 2.73632
750.769 260 2.73632
750 260 2.73632
749.231 260 2.73632
748.462 260 2.73632
747.692 260 2.73632
746.923 260 2.73632
746.154 260 2.73632
745.385 260 2.73632
744.615 260 2.73632
743.846 260 2.73632
743.077 260 2.73632
742.308 260 2.73632
741.538 260 2.73632
740.769 260 2.73632
740 260 2.73632
739.231 260 2.73632
738.462 260 2.73632
737.692 260 2.73632
736.923 260 2.73632
736.154 260 2.73632
735.385 260 2.73632
734.615 260 2.73632
733.846 260 2.73632
733.077 260 2.73632
622.308 259.231 2.48756
621.538 259.231 2.48756
597.692 270.769 6.21891
596.923 270.769 6.21891
566.154 276.923 8.20896
565.385 276.923 8.20896
564.615 276.923 8.20896
533.077 292.308 13.1841
532.308 293.077 13.4328
531.538 293.077 13.4328
530.769 293.077 13.4328
530 293.077 13.4328
500 308.462 18.408
499.231 308.462 18.408
498.462 309.231 18.6567
462.308 324.615 23.6318
461.538 325.385 23.8806
839.231 260.769 2.73632
838.462 260 2.48756
837.692 260 2.48756
836.923 260 2.48756
836.154 260 2.48756
835.385 260 2.48756
834.615 260 2.48756
833.846 260 2.48756
833.077 260 2.48756
832.308 260 2.48756
831.538 260 2.48756
830.769 260 2.48756
830 260 2.48756
829.231 260 2.48756
828.462 260 2.48756
827.692 260 2.48756
826.923 260 2.48756
826.154 260 2.48756
825.385 260 2.48756
824.615 260 2.48756
823.846 260 2.48756
823.077 260 2.48756
822.308 260 2.48756
821.538 260 2.48756
732.308 260 2.48756
731.538 260 2.48756
730.769 260 2.48756
730 260 2.48756
729.231 260 2.48756
728.462 260 2.48756
727.692 260 2.48756
726.923 260 2.48756
726.154 260 2.48756
725.385 260 2.48756
724.615 260 2.48756
723.846 260 2.48756
723.077 260 2.48756
722.308 260 2.48756
721.538 260 2.48756
720.769 260 2.48756
720 260 2.48756
719.231 260 2.48756
718.462 260 2.48756
717.692 260 2.48756
716.923 260 2.48756
716.154 260 2.48756
715.385 260 2.48756
714.615 260 2.48756
713.846 260 2.48756
713.077 260 2.48756
712.308 260 2.48756
711.538 260 2.48756
710.769 260 2.48756
710 260 2.48756
709.231 260 2.48756
708.462 260 2.48756
707.692 260 2.48756
623.077 259.231 2.23881
598.462 270.769 5.97015
568.462 276.154 7.71144
567.692 276.923 7.9602
566.923 276.923 7.9602
535.385 292.308 12.9353
534.615 293.077 13.1841
533.846 293.077 13.1841
533.077 293.077 13.1841
502.308 307.692 17.9104
501.538 308.462 18.1592
500.769 308.462 18.1592
463.846 324.615 23.3831
463.077 325.385 23.6318
462.308 325.385 23.6318
839.231 261.538 2.73632
706.923 260 2.23881
706.154 260 2.23881
705.385 260 2.23881
704.615 260 2.23881
703.846 260 2.23881
703.077 260 2.23881
702.308 260 2.23881
701.538 260 2.23881
700.769 260 2.23881
700 260 2.23881
699.231 260 2.23881
698.462 260 2.23881
697.692 260 2.23881
696.923 260 2.23881
696.154 260 2.23881
695.385 260 2.23881
694.615 260 2.23881
693.846 260 2.23881
693.077 260 2.23881
692.308 260 2.23881
691.538 260 2.23881
690.769 260 2.23881
690 260 2.23881
689.231 260 2.23881
688.462 260 2.23881
687.692 260 2.23881
686.923 260 2.23881
686.154 260 2.23881
685.385 260 2.23881
684.615 260 2.23881
600.769 270.769 5.72139
600 270.769 5.72139
599.231 270.769 5.72139
570 276.923 7.71144
569.231 276.923 7.71144
568.462 276.923 7.71144
536.154 293.077 12.9353
535.385 293.077 12.9353
504.615 307.692 17.6617
503.846 308.462 17.9104
503.077 308.462 17.9104
502.308 308.462 17.9104
466.154 325.385 23.3831
465.385 325.385 23.3831
464.615 325.385 23.3831
463.846 325.385 23.3831
683.846 260 1.99005
683.077 260 1.99005
682.308 260 1.99005
681.538 260 1.99005
680.769 260 1.99005
680 260 1.99005
679.231 260 1.99005
678.462 260 1.99005
677.692 260 1.99005
676.923 260 1.99005
676.154 260 1.99005
675.385 260 1.99005
674.615 260 1.99005
673.846 260 1.99005
673.077 260 1.99005
672.308 260 1.99005
671.538 260 1.99005
670.769 260 1.99005
670 260 1.99005
669.231 260 1.99005
668.462 260 1.99005
667.692 260 1.99005
666.923 260 1.99005
666.154 260 1.99005
665.385 260 1.99005
664.615 260 1.99005
663.846 260 1.99005
663.077 260 1.99005
662.308 260 1.99005
661.538 260 1.99005
660.769 260 1.99005
660 260 1.99005
640 260 1.99005
639.231 260 1.99005
638.462 260 1.99005
637.692 260 1.99005
636.923 260 1.99005
636.154 260 1.99005
635.385 260 1.99005
603.077 270 5.22388
602.308 270.769 5.47264
601.538 270.769 5.47264
572.308 276.923 7.46269
571.538 276.923 7.46269
570.769 276.923 7.46269
570 277.692 7.71144
538.462 293.077 12.6866
537.692 293.077 12.6866
536.923 293.077 12.6866
506.154 307.692 17.4129
505.385 308.462 17.6617
504.615 308.462 17.6617
468.462 325.385 23.1343
467.692 325.385 23.1343
466.923 325.385 23.1343
116.923 264.615 3.48259
116.154 264.615 3.48259
115.385 264.615 3.48259
114.615 264.615 3.48259
113.846 264.615 3.48259
113.077 264.615 3.48259
112.308 264.615 3.48259
111.538 264.615 3.48259
110.769 264.615 3.48259
110 264.615 3.48259
109.231 264.615 3.48259
108.462 264.615 3.48259
107.692 264.615 3.48259
106.923 264.615 3.48259
106.154 264.615 3.48259
105.385 264.615 3.48259
104.615 264.615 3.48259
103.846 264.615 3.48259
103.077 264.615 3.48259
102.308 264.615 3.48259
101.538 264.615 3.48259
100.769 264.615 3.48259
100 264.615 3.48259
99.2308 264.615 3.48259
98.4615 264.615 3.48259
97.6923 264.615 3.48259
96.9231 264.615 3.48259
96.1538 264.615 3.48259
95.3846 264.615 3.48259
94.6154 264.615 3.48259
93.8461 264.615 3.48259
73.0769 264.615 3.48259
72.3077 264.615 3.48259
71.5385 264.615 3.48259
70.7692 264.615 3.48259
70 264.615 3.48259
69.2308 264.615 3.48259
68.4615 264.615 3.48259
67.6923 264.615 3.48259
66.9231 264.615 3.48259
66.1538 264.615 3.48259
65.3846 264.615 3.48259
64.6154 264.615 3.48259
63.8461 264.615 3.48259
63.0769 264.615 3.48259
62.3077 264.615 3.48259
61.5385 264.615 3.48259
60.7692 264.615 3.48259
58.4615 261.538 2.48756
47.6923 261.538 2.48756
45.3846 261.538 2.48756
42.3077 261.538 2.48756
659.231 260 1.74129
658.462 260 1.74129
657.692 260 1.74129
656.923 260 1.74129
656.154 260 1.74129
655.385 260 1.74129
654.615 260 1.74129
653.846 260 1.74129
653.077 260 1.74129
652.308 260 1.74129
651.538 260 1.74129
650.769 260 1.74129
650 260 1.74129
649.231 260 1.74129
648.462 260 1.74129
647.692 260 1.74129
646.923 260 1.74129
646.154 260 1.74129
645.385 260 1.74129
644.615 260 1.74129
643.846 260 1.74129
643.077 260 1.74129
642.308 260 1.74129
641.538 260 1.74129
640.769 260 1.74129
635.385 260.769 1.99005
634.615 260 1.74129
633.846 260 1.74129
633.077 260 1.74129
632.308 260 1.74129
631.538 260 1.74129
630.769 260 1.74129
630 260 1.74129
629.231 260 1.74129
628.462 260 1.74129
604.615 270 4.97512
603.846 270.769 5.22388
603.077 270.769 5.22388
574.615 275.385 6.71642
573.846 276.923 7.21393
573.077 276.923 7.21393
540.769 293.077 12.4378
540 293.077 12.4378
539.231 293.077 12.4378
506.923 308.462 17.4129
506.154 308.462 17.4129
470 324.615 22.6368
469.231 325.385 22.8856
163.077 264.615 3.23383
162.308 264.615 3.23383
161.538 264.615 3.23383
160.769 264.615 3.23383
160 264.615 3.23383
159.231 264.615 3.23383
158.462 264.615 3.23383
157.692 264.615 3.23383
156.923 264.615 3.23383
156.154 264.615 3.23383
155.385 264.615 3.23383
154.615 264.615 3.23383
153.846 264.615 3.23383
153.077 264.615 3.23383
152.308 264.615 3.23383
151.538 264.615 3.23383
150.769 264.615 3.23383
150 264.615 3.23383
149.231 264.615 3.23383
148.462 264.615 3.23383
147.692 264.615 3.23383
146.923 264.615 3.23383
146.154 264.615 3.23383
145.385 264.615 3.23383
144.615 264.615 3.23383
143.846 264.615 3.23383
143.077 264.615 3.23383
142.308 264.615 3.23383
141.538 264.615 3.23383
140.769 264.615 3.23383
140 264.615 3.23383
139.231 264.615 3.23383
138.462 264.615 3.23383
137.692 264.615 3.23383
136.923 264.615 3.23383
136.154 264.615 3.23383
135.385 264.615 3.23383
134.615 264.615 3.23383
133.846 264.615 3.23383
133.077 264.615 3.23383
